# .PCD v0.7 - Point Cloud Data file format
VERSION 0.7
FIELDS x y z
SIZE 4 4 4
TYPE F F F
COUNT 1 1 1
WIDTH 158
HEIGHT 1
VIEWPOINT 0 0 0 1 0 0 0
POINTS 158
DATA ascii
57738.9 -13774.5 -4.98684
57737.7 -13777 -4.99689
57708 -13839.6 -4.42065
57734.8 -13772.6 -5.0606
57724 -13795.9 -4.86792
57716.9 -13810.8 -4.70921
57710.2 -13825 -4.64132
57704.5 -13836.6 -4.36247
57704 -13837.7 -4.35635
57706.7 -13842.2 -4.35338
57702.7 -13840.4 -4.37376
57705.4 -13844.9 -4.29694
57701.4 -13843.1 -4.34207
57704.9 -13846 -4.28481
57700.8 -13844.4 -4.30287
57683.4 -13848.5 -4.10238
57686.8 -13849 -4.10295
57693.7 -13850.1 -4.02044
57694.8 -13849.8 -4.06077
57695.6 -13849.2 -4.09214
57696.5 -13848.3 -4.12592
57697.1 -13847.3 -4.17252
57697.4 -13846.6 -4.1658
57698 -13845.5 -4.17718
57698.4 -13844.7 -4.1842
57699 -13843.5 -4.21597
57683.1 -13850.6 -4.04538
57688.7 -13851.5 -4.05527
57690.3 -13851.8 -4.04331
57694.2 -13852.6 -4.11324
57695.4 -13852.5 -4.13917
57696.4 -13852 -4.15804
57697.4 -13851.1 -4.19263
57697.9 -13850.5 -4.1984
57699.8 -13846.4 -4.28759
57700.5 -13845 -4.30626
57698.9 -13869.2 -3.83914
57701 -13868.6 -3.87557
57702.4 -13868.2 -3.88529
57705.9 -13868.7 -3.80416
57706.4 -13868.7 -3.77083
57714.8 -13871.4 -3.62887
57699.3 -13870.9 -3.77597
57701 -13870.9 -3.83771
57701.8 -13870.9 -3.74709
57706.6 -13872 -3.64713
57710 -13872.7 -3.74147
57713.9 -13874 -3.67647
57693.7 -13877.9 -3.78794
57695 -13875.2 -3.80372
57695.3 -13874.4 -3.82863
57696.9 -13871.4 -3.89308
57695.5 -13878.8 -3.62685
57695.6 -13878.6 -3.66778
57696.8 -13876.1 -3.8331
57697.4 -13875 -3.79185
57681.3 -13862.7 -3.83335
57682.4 -13863.2 -3.82653
57683.9 -13864 -3.91515
57685.4 -13865 -3.9238
57686.2 -13865.9 -3.90555
57686.7 -13866.9 -3.89098
57687.1 -13867.9 -3.87486
57687.2 -13868.3 -3.87347
57687.5 -13869.5 -3.86368
57687.6 -13870.7 -3.84912
57687.4 -13871.8 -3.83247
57687.1 -13872.7 -3.82088
57686.5 -13874.3 -3.81504
57680.2 -13865.1 -3.88366
57680.4 -13865.2 -3.90277
57681.3 -13865.9 -3.84162
57683 -13867.2 -3.7738
57683.9 -13868.4 -3.81242
57684.1 -13868.8 -3.70516
57684.6 -13872.6 -3.64264
57684.6 -13872.7 -3.65683
57684.5 -13873 -3.645
57684.4 -13873.2 -3.63889
57689.9 -13876.1 -3.71283
57683.3 -13889.7 -3.47847
57686.4 -13874.6 -3.81421
57682.9 -13881.9 -3.74583
57679.9 -13888.1 -3.57665
57682 -13892.3 -3.42047
57670.4 -13916.4 -2.43196
57670.8 -13907.1 -2.82317
57667.1 -13914.9 -2.50601
57663.9 -13917.3 -2.19742
57658.8 -13918.7 -2.10465
57664.7 -13913.6 -2.34665
57663.7 -13915.6 -2.23714
57661.3 -13917.8 -2.11813
57656 -13930.9 -1.46009
57655.9 -13930.7 -1.47168
57658.7 -13932.1 -1.58752
57659.2 -13931.1 -1.65951
57660 -13929.3 -1.76962
57661.9 -13933.7 -1.5688
57657 -13943.9 -1.02399
57649.7 -13961 -0.035298
57651.8 -13946.4 -0.822764
57648.2 -13954 -0.418371
57645.8 -13959.1 -0.12149
57649.5 -13961.6 -0.003613
57645.6 -13959.7 -0.086632
57648.3 -13964.3 0.179429
57645.6 -13959.7 -0.083097
57643.6 -13961.5 0.120027
57646.9 -13966.3 0.304382
57644.7 -13967.6 0.412189
57641.9 -13968.2 0.493273
57638.7 -13968.1 0.554505
57635.4 -13967.5 0.604834
57641.4 -13962.8 0.188385
57638.7 -13963.3 0.293817
57635.7 -13963.2 0.337341
57636.2 -13967.9 0.478509
57637.4 -13969.2 0.620226
57637.9 -13970.6 0.703181
57637.9 -13972.7 0.832218
57635.3 -13969.2 0.599008
57636.1 -13971.1 0.923441
57636.1 -13971.7 0.885985
57640.7 -13974.1 0.880623
57627.1 -14002.1 2.82843
57637.9 -13973 0.848993
57631.5 -13986.3 1.80007
57624.4 -14000.9 2.78453
57624.1 -14008.4 3.30227
57621.4 -14007 3.25126
57623.3 -14010 3.40999
57620.6 -14008.7 3.43252
57595 -14021.4 4.58435
57601 -14021.3 4.44563
57604.8 -14021.2 4.37413
57608.2 -14021.1 4.31925
57611.3 -14020.2 4.10776
57613.1 -14018.5 3.99585
57614.1 -14017.6 4.23218
57616.3 -14014.4 3.88331
57616.4 -14014 3.84657
57617.8 -14010.9 3.69624
57619.1 -14008.3 3.50224
57619.1 -14008.1 3.49047
57595 -14022.9 4.54678
57603.5 -14022.6 4.44487
57609 -14022.4 4.54319
57611.7 -14021.9 4.48178
57613.9 -14020.7 4.38583
57616 -14018.3 4.0684
57617.4 -14015.4 3.84745
57618.5 -14013 3.68952
57619.2 -14011.6 3.61709
57595.1 -14026 4.64135
57568.1 -14027 5.16628
57575.2 -14023.6 5.0279
57567.9 -14023.9 5.16852